# .PCD v0.7 - Point Cloud Data file format
VERSION 0.7
FIELDS x y z
SIZE 4 4 4
TYPE F F F
COUNT 1 1 1
WIDTH 157
HEIGHT 1
VIEWPOINT 0 0 0 1 0 0 0
POINTS 157
DATA ascii
-0.32904074 0.26095697 0.59405804
-0.25027272 0.25647587 0.59087461
-0.15033518 0.25607556 0.59126949
-0.049995076 0.25565886 0.59136176
0.050311416 0.25519019 0.59134793
0.14922956 0.25722507 0.59231275
0.23823398 0.25951126 0.59302121
-0.40861022 0.1756542 0.6838764
-0.34933338 0.18071453 0.67600137
-0.24970633 0.18082809 0.67631102
-0.14969699 0.18024407 0.67504054
-0.048247807 0.16058753 0.67498529
0.048161916 0.17729034 0.6749537
0.14949189 0.18031339 0.67571002
0.24981485 0.180966 0.6762917
0.31133738 0.17716017 0.68019593
-0.40044001 0.20116 0.65800011
-0.34260485 0.22616461 0.62725931
-0.25013021 0.2250846 0.62558728
-0.15022318 0.22531641 0.6249423
-0.050367553 0.22496234 0.62406856
0.050085276 0.22458817 0.62444669
0.15039113 0.22602275 0.62543041
0.24744447 0.22661711 0.62682056
0.3031491 0.20634232 0.64879024
-0.43134177 0.085071795 0.78331649
-0.35031828 0.08593633 0.78392768
-0.25047585 0.082828678 0.77923405
0.07412938 0.085275844 0.77666283
0.14925362 0.085321918 0.78203887
0.25039044 0.08491978 0.78229868
0.33704227 0.083677299 0.78352922
-0.42348924 0.12801963 0.7352733
-0.34990028 0.13147108 0.7321316
-0.25028735 0.13157372 0.73138696
-0.14969352 0.13212387 0.72643137
-0.043576896 0.14562039 0.70765591
0.053418089 0.13188373 0.72317946
0.1504176 0.13104375 0.73099309
0.25031969 0.13183935 0.7303986
0.32473809 0.12811565 0.73447245
-0.44121763 -0.009120049 0.88932186
-0.34973815 -0.0082545774 0.88942116
-0.24815923 -0.0097543076 0.88830036
-0.17743681 -0.010107895 0.88775748
0.090067595 -0.010338114 0.88670158
0.14954558 -0.010886188 0.8879298
0.24988066 -0.010846274 0.88774902
0.3511349 -0.010953933 0.88787246
0.41434842 -0.012602862 0.88859147
-0.43520859 0.036013275 0.8384214
-0.35036334 0.037625972 0.83825529
-0.258645 0.034123365 0.83953029
-0.18100455 0.0076643745 0.86831993
0.082752086 0.038637858 0.83144468
0.15023817 0.036597926 0.83587396
0.24962157 0.036110789 0.83616793
0.34817782 0.034365453 0.83766568
0.40738228 0.01246243 0.86215091
-0.45535868 -0.10370614 0.99336141
-0.34751937 -0.10339063 0.9952246
-0.24943396 -0.10444701 0.9940691
-0.14934526 -0.10462975 0.99318814
-0.04862912 -0.10554763 0.9917953
0.048486702 -0.104792 0.99133146
0.15164992 -0.10508607 0.99109417
0.25039217 -0.10585475 0.99154299
0.35020608 -0.1057054 0.99033773
0.4194414 -0.10491566 0.99097079
-0.50039911 -0.09875048 0.99699998
-0.4428376 -0.058275223 0.9446432
-0.35038242 -0.056259871 0.943183
-0.25043195 -0.057906155 0.94208622
-0.15392469 -0.062676832 0.94682974
-0.056893975 -0.079131156 0.96391696
0.065099768 -0.075005978 0.95890218
0.1502917 -0.058942858 0.94103813
0.25013408 -0.058911998 0.94024318
0.34983814 -0.058954798 0.94075733
0.41895983 -0.060274165 0.94137675
-0.50647712 -0.20207 1.0965
-0.45697719 -0.20182291 1.098
-0.025040381 -0.20195162 1.0968798
0.050117802 -0.20261878 1.0970422
0.15514728 -0.20335272 1.0964594
0.2493407 -0.20297559 1.0950437
0.34132922 -0.20261452 1.0969429
0.42011532 -0.20272978 1.0958247
-0.50414318 -0.17683877 1.073763
-0.44877654 -0.15122181 1.0474371
-0.34995165 -0.14983886 1.0473081
-0.24948046 -0.15192775 1.0471722
-0.14998057 -0.15258001 1.0464526
-0.050156303 -0.15410499 1.0464344
0.05019173 -0.15306248 1.0443909
0.14977409 -0.15325175 1.0434868
0.25001639 -0.1540428 1.0436524
0.35031164 -0.15425734 1.0455289
0.41932517 -0.15362905 1.0447446
-0.50962806 -0.25261524 1.1571916
-0.45038956 -0.24307615 1.1490045
-0.35058871 -0.241693 1.1482663
-0.25038075 -0.24256541 1.1483818
-0.15005046 -0.24313655 1.1479428
-0.049354952 -0.24660273 1.1484225
0.050180547 -0.24866907 1.1481751
0.15037453 -0.24901636 1.1466978
0.2500408 -0.25019795 1.1480477
0.35062611 -0.24826346 1.1485344
0.4194977 -0.24953958 1.1491667
-0.46493906 -0.19836 1.102
-0.36080417 -0.19809259 1.1024054
-0.26972762 -0.19835998 1.1020001
-0.5172388 -0.34131536 1.2543505
-0.44962099 -0.3391031 1.2535937
-0.35030523 -0.3376714 1.2541492
-0.24916679 -0.33696732 1.2528387
-0.14952402 -0.3379682 1.2527099
-0.049707126 -0.33998913 1.250573
0.050151758 -0.34162402 1.2491995
0.15057053 -0.34178853 1.2482808
0.2494781 -0.34100387 1.2477882
0.34983051 -0.34192556 1.250096
0.41938955 -0.3415612 1.249729
-0.51459473 -0.29554293 1.2037143
-0.44621658 -0.29475498 1.2061206
-0.34614047 -0.2941381 1.2072783
-0.24891384 -0.294332 1.2057674
-0.14907674 -0.29467648 1.2048036
-0.06255766 -0.29628983 1.2034291
0.04734692 -0.29839334 1.2024347
0.1342773 -0.29810822 1.2023554
0.2547524 -0.29898596 1.2032173
0.3554914 -0.29816827 1.2031256
0.41346857 -0.29823759 1.2036842
-0.52507126 -0.40840802 1.3281418
-0.44760543 -0.40822622 1.3304698
-0.35045859 -0.40795779 1.3307905
-0.24980637 -0.40819344 1.3301948
-0.15042301 -0.40778011 1.3283718
-0.049989983 -0.40807086 1.3239812
0.049543466 -0.40833294 1.3213104
0.14964269 -0.40878117 1.3227322
0.25242653 -0.40789932 1.3219588
0.35193297 -0.40879998 1.3222065
0.41805926 -0.40791857 1.3195288
-0.52226484 -0.38977155 1.3080219
-0.4517543 -0.3905715 1.3099049
-0.34926185 -0.38847944 1.3100481
-0.25150853 -0.38827708 1.3096298
-0.14982779 -0.38960093 1.3093755
-0.051089019 -0.39171943 1.3076824
0.04832017 -0.39315876 1.3061955
0.14580406 -0.39346585 1.306798
0.25206065 -0.39278629 1.3062886
0.34967965 -0.39301759 1.3052188
0.41802987 -0.39268756 1.3043048
